-1.35076 2.272219 -0.47124898
-1.596151 2.164131 -0.40057695
-1.774935 2.02526 -0.32889295
-2.1011178 1.509632 -0.19022095
-2.046666 1.619549 -0.21170402
-1.840689 1.821644 -0.204512
-1.832008 1.674414 -0.0075340234
-1.150025 2.332234 -0.51737
-2.163655 1.60723 -0.265602
-2.108769 1.815479 -0.31908906
-1.883511 2.08802 -0.40817595
-1.704366 2.29558 -0.504948
-1.4030471 2.420228 -0.587114
-1.20437 2.465445 -0.62182
-2.241685 1.522609 -0.26562405
-2.014822 1.958453 -0.34764802
-1.462724 2.437194 -0.69685
-2.497569 1.524098 -0.33244503
-2.3050299 1.637875 -0.39782703
-2.2356389 1.81225 -0.43803
-1.992088 2.148757 -0.530684
-2.135563 1.981181 -0.49025297
-1.7689149 2.337578 -0.593981
-1.231287 2.492179 -0.775332
-1.540108 2.336007 -0.966001
-1.275226 2.419793 -1.002105
-2.408881 1.602425 -0.50720704
-2.31417 1.801479 -0.635959
-2.206982 1.928326 -0.6853
-2.0511 2.078027 -0.757735
-1.810132 2.224935 -0.862481
-2.7110949 1.483279 -0.27780402
-1.277516 2.41027 -1.0192649
-1.638607 2.294573 -0.947517
-2.327026 1.80305 -0.64862704
-2.425153 1.600678 -0.517558
-2.216834 1.930609 -0.700301
-2.058948 2.077297 -0.775104
-1.815765 2.222208 -0.880627
-1.541544 2.32672 -0.98303
-2.903217 1.477526 -0.29818594
-1.507515 2.154245 -1.217172
-1.847804 2.214046 -0.905723
-2.4306579 1.824525 -0.684969
-2.570242 1.608965 -0.567286
-2.587406 1.606549 -0.564517
-2.283251 1.978978 -0.760436
-2.0923629 2.09054 -0.824908
-1.778399 2.025901 -1.145982
-1.291396 2.213308 -1.252524
-1.848595 2.209484 -0.922608
-2.824431 1.513723 -0.63032997
-2.589186 1.605971 -0.57288504
-1.737417 1.963641 -1.224184
-1.470764 2.014302 -1.429613
-2.43655 1.821458 -0.696846
-2.287531 1.975983 -0.77225
-3.133052 1.492299 -0.43952596
-2.5415719 1.633217 -0.719599
-2.576902 1.611502 -0.583071
-2.095862 2.085467 -0.839642
-2.01139 1.882496 -1.050838
-1.460175 2.012424 -1.43957
-3.093546 1.529701 -0.650924
-2.903217 1.477526 -0.29818594
-3.082586 1.398413 -0.55650306
-2.644625 1.513902 -0.701048
-1.743425 1.950444 -1.237351
-1.470484 2.009115 -1.450912
-1.320758 2.083527 -1.442892
-2.3923979 1.684055 -0.840153
-2.22839 1.771646 -0.928207
-3.334477 1.515244 -0.675065
-3.109942 1.412135 -0.56176496
-2.872053 1.333504 -0.44084704
-2.5333989 1.630163 -0.746623
-2.038588 1.859782 -1.047516
-2.039103 1.87394 -1.033629
-3.328893 1.51783 -0.689818
-3.090775 1.405812 -0.57153106
-2.490215 1.571807 -0.86558
-2.386232 1.668054 -0.853564
-1.721898 1.940086 -1.297503
-2.016908 1.830267 -1.0857149
-2.227094 1.757727 -0.941924
-3.105482 1.415235 -0.577086
-3.093546 1.529701 -0.650924
-2.99409 1.334545 -0.52482903
-2.621037 1.417704 -0.721472
-2.31466 1.584185 -0.932675
-1.474344 2.012496 -1.482629
-2.221791 1.741248 -0.982976
-2.386379 1.67465 -0.858563
-2.987999 1.334589 -0.536549
-2.493443 1.418458 -0.837801
-2.48226 1.432139 -0.850201
-2.279681 1.587465 -0.946943
-2.386514 1.670905 -0.851863
-1.735369 1.922667 -1.303342
-1.489704 2.002722 -1.491697
-2.019853 1.814819 -1.0978839
-2.353143 1.668126 -0.921357
-2.968164 1.308953 -0.530517
-2.340476 1.659329 -0.934505
-1.718113 1.930703 -1.319052
-1.48405 2.015586 -1.499335
-2.221503 1.72669 -0.9961
-2.7545109 1.265499 -0.481593
-2.337741 1.664165 -0.936195
-2.130008 1.602053 -1.0043939
-1.779168 1.731839 -1.469772
-2.039253 1.706351 -1.163637
-1.346247 2.057205 -1.572047
-1.637416 1.886405 -1.466276
-2.214232 1.67032 -1.0311409
-2.757893 1.249204 -0.49312496
-2.329532 1.667344 -0.946002
-1.898222 1.715911 -1.2730219
-2.127733 1.608911 -1.0242469
-1.916522 1.656376 -1.348505
-2.004604 1.56428 -1.20455
-2.005285 1.551831 -1.194757
-1.950613 1.492366 -1.359459
-2.004241 1.547599 -1.2007279
-1.95002 1.476662 -1.354396
-1.948779 1.482518 -1.370135
-1.972113 1.34952 -1.434597
-1.973258 1.352486 -1.450945
-2.305371 1.282867 -0.848022
-2.295299 1.256572 -0.830096
-2.284994 1.280837 -0.845104
-2.137191 1.59864 -1.0048369
-2.130008 1.602053 -1.0043939
-2.305371 1.282867 -0.848022
-2.137191 1.59864 -1.0048369
-2.6489758 1.937111 -1.784605
-2.748657 1.726866 -1.784607
-2.549294 1.892711 -1.829002
-2.405649 2.169119 -1.81768
-2.914502 1.749066 -1.7846119
-2.759539 1.981074 -1.784607
-2.626775 1.726866 -1.817685
-2.322654 2.106978 -1.932148
-2.455451 2.238195 -1.795185
-2.445226 2.238183 -1.797893
-2.8489249 1.996021 -1.806883
-2.888198 2.002589 -1.81667
-2.965299 1.561212 -1.737177
-2.619766 1.688794 -1.805986
-2.478283 1.872251 -1.920469
-2.155014 2.242491 -1.919611
-2.442533 2.253175 -1.79502
-2.4626079 2.2466 -1.795481
-2.593694 2.2466 -1.795485
-2.7531369 2.298313 -1.904622
-2.9806669 1.737967 -1.784613
-3.046829 1.726866 -1.784615
-2.67682 1.514609 -1.726707
-2.512079 1.726866 -1.943064
-2.149791 2.233009 -1.916808
-2.228922 2.334964 -1.817675
-2.315391 2.100417 -1.930076
-2.453402 2.260057 -1.796628
-2.671174 2.301882 -1.862087
-2.764118 2.306176 -1.902015
-2.896247 2.004205 -1.816304
-3.128304 1.575116 -1.776531
-2.508723 1.72642 -1.941054
-2.506469 1.681598 -1.929062
-2.4676979 1.868513 -1.91957
-1.972618 2.34343 -1.941027
-1.977422 2.35249 -1.943011
-2.272888 2.401563 -1.784595
-2.483131 2.379363 -1.8068
-2.53574 2.308856 -1.868736
-2.524328 2.320835 -1.867942
-2.617639 2.45582 -1.966802
-2.939066 2.014316 -1.801239
-3.189426 1.691026 -1.824496
-2.4900959 1.498 -1.850486
-2.502097 1.727654 -1.940567
-2.05176 2.434645 -1.81767
-2.372568 2.52301 -1.79548
-2.071327 2.539561 -1.784589
-2.5920599 2.375723 -1.92615
-2.620737 2.469838 -1.968421
-3.16871 1.726866 -1.784617
-3.22431 1.576231 -1.847534
-2.505375 1.724885 -1.940647
-2.505375 1.724885 -1.940647
-1.707741 2.453842 -1.940987
-1.710978 2.462843 -1.942631
-2.062102 2.535677 -1.787441
-2.450048 2.57829 -1.850763
-2.538411 2.467727 -1.872965
-2.578892 2.387161 -1.92337
-2.613575 2.466416 -1.969679
-2.704257 2.50081 -1.806806
-2.83702 2.312764 -1.806809
-2.605453 2.476199 -1.967918
-3.080347 2.047674 -1.751534
-3.334554 1.738184 -1.817704
-3.235707 1.582948 -1.846926
-1.74227 2.567408 -1.80678
-1.764471 2.655771 -1.773698
-2.053708 2.548677 -1.784248
-2.173641 2.644455 -1.806792
-2.228797 2.703969 -1.868966
-2.074384 2.555358 -1.78686
-2.5659719 2.576095 -1.947148
-2.638093 2.57829 -1.850768
-2.958467 2.357164 -1.751531
-3.157394 2.080756 -1.773735
-3.478201 1.870511 -1.773744
-3.205431 1.686042 -1.821041
-2.060037 2.564883 -1.78608
-2.519435 2.61804 -1.968297
-2.576743 2.579087 -1.94679
-2.880986 2.62269 -1.773728
-2.8370209 2.52301 -1.74021
-3.252161 1.873212 -1.763656
-3.244096 1.907729 -1.763894
-3.267046 1.881319 -1.762932
-3.507988 1.820733 -1.843121
-1.864152 2.854699 -1.773701
-2.094008 2.66446 -1.846409
-2.148696 2.740429 -1.91289
-2.2214549 2.782366 -1.935706
-2.544839 2.617591 -1.969185
-2.54798 2.620425 -1.962189
-3.091228 2.467727 -1.784616
-3.262082 1.905464 -1.764664
-3.210797 2.083804 -1.81362
-3.282339 2.001086 -1.773738
-3.776807 2.025474 -1.784635
-3.387881 1.726123 -1.857225
-2.080155 2.672964 -1.844602
-2.040878 2.688854 -1.795471
-2.527478 2.627357 -1.9675059
-2.911596 2.703396 -1.83416
-2.535172 2.625529 -1.97135
-3.1481571 2.20268 -1.754893
-3.144315 2.234066 -1.752849
-3.226479 2.089122 -1.81283
-3.412038 2.113837 -1.729342
-3.721528 2.2466 -1.729351
-3.776806 1.975494 -1.864523
-3.404347 1.724498 -1.853184
-1.842248 3.105468 -1.958773
-2.135936 2.752373 -1.913196
-2.213728 2.78427 -1.938634
-2.532491 2.622425 -1.971614
-2.220174 2.794098 -1.934829
-2.914501 2.716356 -1.831418
-3.163041 2.205687 -1.753429
-3.270932 2.08353 -1.765785
-3.865173 2.301882 -1.762436
-3.893767 2.073122 -1.926662
-3.514048 1.811075 -1.842068
-2.085276 2.810298 -1.839871
-1.844528 3.105739 -1.960022
-2.201333 2.791742 -1.938055
-2.213301 2.78818 -1.938342
-2.251121 2.854699 -1.817675
-2.560612 2.721936 -1.795484
-3.1277921 2.562981 -1.811196
-3.119813 2.548347 -1.813041
-3.334555 2.368047 -1.751541
-3.679708 2.402808 -1.739599
-3.9251711 2.151732 -1.830124
-3.781786 1.964498 -1.86639
-1.840993 3.111693 -1.944556
-2.112812 2.859393 -1.916853
-2.2950869 2.909981 -1.751512
-1.963396 3.086707 -1.817668
-3.155989 2.63763 -1.780716
-3.648212 2.408698 -1.741186
-3.681341 2.421902 -1.740232
-3.9232361 2.380875 -1.849281
-3.901036 2.061154 -1.931265
-3.951113 2.26987 -1.885781
-1.854769 3.111153 -1.94996
-1.826561 3.104078 -1.956913
-2.123241 2.870171 -1.912419
-2.914502 2.766335 -1.75153
-2.029997 3.120224 -1.740189
-2.571496 2.777218 -1.740203
-1.92332 3.083376 -1.901523
-3.380132 2.465411 -1.812527
-3.37483 2.449395 -1.812154
-3.721528 2.512126 -1.740233
-3.922956 2.092767 -1.965856
-3.9168181 2.103789 -1.962727
-1.913743 3.068074 -1.905823
-1.889538 3.483742 -1.811716
-1.92332 3.083376 -1.901523
-2.39477 2.987461 -1.729315
-1.906872 3.485675 -1.815999
-3.412038 2.545208 -1.71846
-3.19985 2.744081 -1.76815
-3.825623 2.583559 -1.813465
-3.912836 2.468493 -1.938602
-3.9323251 2.225058 -2.024886
-2.781741 2.810298 -1.729327
-2.217607 3.21947 -1.718429
-2.560615 2.887781 -1.718439
-1.996481 3.440597 -1.729305
-3.44512 2.721936 -1.729344
-2.914502 2.909981 -1.75153
-3.9454901 2.328252 -1.99756
-3.876214 2.089838 -2.062472
-1.812363 3.729492 -1.852444
-2.626778 2.887781 -1.71844
-2.372568 3.363115 -1.751515
-2.550165 3.000293 -1.759023
-2.5396159 3.008271 -1.76033
-1.971062 3.733434 -1.759875
-3.3555791 2.794165 -1.808223
-3.329906 2.793204 -1.808978
-3.221015 2.812055 -1.763126
-3.214386 2.82436 -1.762082
-3.6096401 2.759447 -1.8114359
-3.798455 2.660527 -1.896032
-3.8129861 2.544427 -2.065126
-3.883286 2.07837 -2.065556
-3.8812451 2.331457 -2.20312
-3.831346 2.134833 -2.252645
-1.831545 3.726351 -1.855245
-2.814823 2.932179 -1.729327
-2.1405609 3.440597 -1.70711
-2.464603 3.11426 -1.752575
-2.535 3.027318 -1.760744
-2.558178 3.005556 -1.760362
-2.1405609 3.639523 -1.696227
-3.351263 2.808032 -1.809442
-3.494327 2.788424 -1.845713
-3.2955241 2.943613 -1.75359
-3.229115 2.830027 -1.760695
-3.619482 2.784434 -1.886545
-3.803983 2.557274 -2.069274
-3.811726 2.541134 -2.077765
-3.889992 2.256611 -2.239217
-1.829136 3.73625 -1.861424
-2.870104 3.108907 -1.76241
-2.693378 2.943063 -1.729324
-2.37257 3.628642 -1.729315
-2.445028 3.311416 -1.865094
-2.47782 3.129457 -1.803289
-2.550505 3.023511 -1.760007
-2.097535 3.74152 -1.751464
-1.963294 3.810825 -1.856796
-3.2369401 2.827832 -1.761294
-3.490431 2.802954 -1.850488
-2.958467 3.098024 -1.751531
-3.497829 2.787549 -1.900759
-3.735468 2.695317 -2.013395
-3.799577 2.558515 -2.082452
-3.804397 2.54803 -2.089574
-3.837154 2.125376 -2.257335
-3.789112 2.401043 -2.428467
-3.7971041 2.334964 -2.511131
-3.866753 2.21838 -2.4020119
-1.813648 3.72998 -1.869177
-1.808057 3.727728 -1.866184
-2.593695 3.55116 -1.762403
-2.621625 3.514042 -1.790334
-2.571497 3.26387 -1.718439
-3.383887 2.899648 -1.764475
-3.490852 2.797235 -1.900416
-3.091228 3.24167 -1.784616
-3.502091 2.811845 -2.026992
-3.602565 2.794858 -2.018024
-3.696506 2.65849 -2.187818
-3.7429771 2.529883 -2.313499
-3.860862 2.222031 -2.421465
-1.867362 3.829046 -1.941383
-1.787649 3.745853 -1.889052
-2.723368 3.185662 -1.723477
-2.505928 3.643272 -1.807312
-2.456076 3.305652 -1.865293
-2.4888659 3.132595 -1.805508
-2.062589 3.77998 -1.83337
-2.307323 3.693883 -1.767347
-3.502334 2.914829 -1.800612
-3.5279691 2.915934 -1.881515
-3.455826 2.997231 -1.795453
-3.494174 2.822633 -2.02427
-3.580583 2.78797 -2.094262
-3.648673 2.735461 -2.129745
-3.615755 2.542119 -2.2338529
-3.618989 2.53402 -2.241937
-3.872915 2.209291 -2.407083
-3.644567 2.45194 -2.545745
-3.596374 2.598121 -2.4737139
-3.801852 2.321975 -2.512737
-2.008909 3.811977 -1.969044
-1.79795 3.746329 -1.898812
-2.859222 3.374432 -1.76241
-2.586448 3.567895 -1.857054
-2.629834 3.498691 -1.790407
-3.317549 3.186242 -1.967884
-3.500081 2.811244 -2.033766
-3.586061 2.714247 -2.342614
-3.598423 2.704798 -2.337631
-3.601097 2.696479 -2.346555
-3.6431131 2.465787 -2.512502
-3.791291 2.332572 -2.525409
-3.591365 2.701669 -2.356389
-3.8710501 2.208215 -2.418735
-1.692511 3.785789 -2.075268
-1.784265 3.746374 -1.896657
-1.498935 3.581553 -2.068806
-2.900553 3.415823 -1.815979
-2.451596 3.686808 -1.890556
-2.6578379 3.501063 -1.901159
-2.63669 3.504702 -1.794234
-2.660668 3.412956 -1.739212
-2.144592 3.774272 -1.991908
-2.222084 3.74319 -1.868196
-3.512132 2.907164 -1.990895
-3.1096811 3.297366 -1.870563
-3.447192 3.000757 -1.997238
-3.318399 2.888766 -2.227913
-3.395159 2.863253 -2.330492
-3.589493 2.474354 -2.557264
-3.5834281 2.453904 -2.730938
-3.545415 2.570668 -2.507593
-3.450014 2.731052 -2.521963
-3.5839891 2.713457 -2.353728
-3.8068461 2.304811 -2.532445
-1.872399 3.782141 -2.1281729
-1.488066 3.58351 -2.068736
-2.610306 3.618007 -1.911541
-2.701099 3.488497 -1.786103
-2.021281 3.726391 -2.154464
-3.45607 3.002095 -1.892274
-3.269806 3.233737 -1.991855
-3.234522 3.231239 -2.134288
-3.447192 3.000757 -1.997238
-3.321187 2.878955 -2.239588
-3.500616 2.816524 -2.234891
-3.597352 2.466852 -2.563427
-3.593584 2.49141 -2.522453
-3.800371 2.307906 -2.543894
-3.824092 2.111332 -2.779566
-3.424548 2.683365 -2.556789
-3.876776 2.118667 -2.637686
-1.585529 3.645407 -2.091659
-1.815466 3.706914 -2.250697
-1.803884 3.707598 -2.246472
-1.489881 3.581523 -2.076628
-3.061887 3.305846 -1.9787409
-2.324775 3.692159 -1.972773
-2.670281 3.50163 -1.90924
-2.673657 3.490941 -1.896773
-3.357144 2.98358 -2.183325
-3.234968 3.251869 -2.04856
-3.230369 3.251684 -2.066552
-3.232764 3.126942 -2.231085
-3.230993 3.042424 -2.380297
-3.233447 3.033148 -2.392834
-3.439546 2.819408 -2.452637
-3.579537 2.47219 -2.580424
-3.6365871 2.268816 -2.95748
-3.790448 2.084861 -2.692981
-3.09393 2.936172 -2.643174
-3.7970471 2.083251 -2.678982
-1.581347 3.643317 -2.104953
-1.818401 3.700156 -2.265868
-1.932621 3.667445 -2.3910549
-2.89643 3.415154 -1.895243
-2.657345 3.595033 -2.027823
-2.6962729 3.573083 -1.92839
-2.262488 3.622482 -2.273074
-3.335071 3.041151 -2.136883
-3.084644 3.385914 -2.071532
-3.147923 3.135031 -2.448588
-3.213737 3.054828 -2.402276
-3.207652 3.022777 -2.552058
-3.218769 3.046174 -2.40804
-3.255615 2.515474 -2.6799579
-3.469321 2.503411 -2.750494
-3.557121 2.344469 -2.9441059
-3.755135 2.081289 -2.935458
-3.745984 2.088091 -2.9450479
-3.920097 1.950517 -2.754494
-3.020801 2.814986 -2.730977
-3.117607 2.998973 -2.596489
-3.936927 1.960884 -2.704197
-1.792451 3.703695 -2.254999
-1.76431 3.717439 -2.377561
-1.808106 3.703242 -2.2678359
-2.1707199 3.615252 -2.3497539
-1.514346 3.727343 -2.202956
-3.062615 3.315093 -1.98999
-2.34532 3.640674 -2.0041249
-2.8981729 3.423895 -1.909339
-2.339325 3.494608 -2.333528
-3.220241 3.052041 -2.389188
-3.21282 3.270055 -2.0504
-3.008137 3.30443 -2.229589
-3.096642 3.376126 -2.005209
-3.261683 2.506469 -2.688025
-3.543104 2.364198 -2.926594
-3.567038 2.340775 -3.0085819
-3.552424 2.349778 -2.952456
-3.745383 2.082723 -2.9519858
-3.879311 1.90688 -2.919945
-3.7598171 2.067879 -2.942803
-3.938521 1.945046 -2.720695
-3.0093699 2.9383 -2.674185
-3.031607 3.018285 -2.625004
-1.691393 3.620802 -2.643709
-1.987117 3.598331 -2.437609
-2.357472 3.634166 -2.012316
-2.892421 3.492673 -2.0268
-2.91113 3.474434 -1.932894
-2.176316 3.502904 -2.420631
-2.9380589 3.400377 -2.174539
-3.039049 3.146836 -2.50839
-3.256766 2.514592 -2.688958
-3.542003 2.364666 -2.940013
-3.46265 2.506225 -2.990118
-3.742982 1.821028 -2.986016
-2.95292 2.822449 -2.7489429
-3.038866 3.133223 -2.521332
-1.503899 3.755906 -2.343158
-1.849528 3.592578 -2.645033
-1.90075 3.563207 -2.640082
-2.357661 3.579469 -2.07385
-2.555059 3.56455 -2.145406
-2.7572489 3.487145 -2.1490319
-2.417315 3.32538 -2.310497
-2.87289 3.353823 -2.246577
-3.027485 3.153966 -2.505859
-3.473095 2.480706 -2.914968
-3.570935 2.178582 -3.179581
-3.75118 2.069743 -2.9562669
-3.736095 1.823632 -2.996316
-3.035575 2.798355 -2.737328
-2.999816 2.948092 -2.6837618
-2.939015 2.824753 -2.759959
-2.997915 2.819266 -2.743743
-3.022739 3.025879 -2.636412
-1.4089841 3.702504 -2.269309
-1.421501 3.61158 -2.611537
-1.824419 3.483329 -2.857302
-1.978301 3.396802 -2.581912
-2.151838 3.411348 -2.463952
-2.369816 3.580344 -2.066917
-2.718523 3.425146 -2.249719
-2.853359 3.35638 -2.25294
-2.874412 3.346251 -2.258925
-3.024152 3.150135 -2.520683
-2.955074 3.311615 -2.319252
-3.0225189 3.154012 -2.513571
-3.336556 2.65139 -2.754291
-3.425283 2.499424 -3.099376
-3.339704 2.694516 -2.839769
-3.7515361 1.947527 -3.1033258
-3.74075 1.811342 -2.997201
-3.029685 3.136495 -2.536804
-1.67033 3.497551 -2.827924
-1.909616 3.415179 -2.84934
-1.708209 3.497483 -2.8364599
-1.69813 3.504055 -2.826289
-1.972854 3.390458 -2.6099029
-2.522661 3.510173 -2.223863
-2.155422 3.402074 -2.46414
-2.661757 3.31455 -2.2956889
-3.446649 2.254442 -3.28497
-3.635029 1.934675 -3.261355
-3.620748 1.942414 -3.2744648
-2.950276 2.850003 -2.766371
-2.949408 2.849563 -2.763401
-2.940615 2.844847 -2.764468
-2.995403 2.992133 -2.7494938
-3.025476 3.062474 -2.6917338
-1.346508 3.585953 -2.580137
-1.428551 3.487911 -2.769582
-1.8182319 3.276423 -3.0955849
-1.765458 3.331005 -3.0604339
-1.677565 3.487997 -2.842121
-1.986674 3.394298 -2.582718
-2.153332 3.406905 -2.475853
-2.429623 3.325992 -2.305884
-2.159054 3.402689 -2.468639
-2.423418 3.322574 -2.316863
-2.851173 3.351706 -2.2650769
-2.694627 3.373703 -2.3831189
-2.775092 3.288584 -2.669999
-2.853625 3.215121 -2.727908
-2.742219 3.378451 -2.478761
-3.096007 2.865664 -2.951422
-3.298917 2.653922 -3.070272
-3.453149 2.077515 -3.4433649
-3.337295 2.461864 -3.177475
-3.459802 2.057223 -3.4509408
-3.616589 1.937935 -3.284572
-3.633541 1.923618 -3.272584
-3.07718 2.890211 -2.863205
-2.949373 2.856666 -2.772327
-2.945045 2.863881 -2.7654889
-2.8809319 3.114392 -2.830839
-1.350044 3.491929 -2.714921
-1.434256 3.406159 -2.801969
-1.916559 3.333055 -2.88026
-2.157827 3.399189 -2.4657009
-2.6635349 3.311212 -2.307126
-2.9103389 3.243515 -2.51917
-2.888705 3.253958 -2.53588
-2.752754 3.342277 -2.5478249
-3.149792 2.614242 -3.246258
-3.335471 2.228371 -3.306328
-3.519025 1.900066 -3.486834
-3.457413 2.052707 -3.459054
-3.623127 1.926623 -3.285538
-3.820349 1.757099 -3.177429
-2.878165 2.942301 -2.9697049
-2.835262 2.941976 -2.870589
-1.273598 3.476084 -2.5634
-1.358917 3.290711 -2.744828
-1.833612 3.036172 -3.093942
-1.605261 3.25069 -3.168158
-1.611575 3.248722 -3.168385
-1.435598 3.364259 -2.928055
-1.926206 3.330724 -2.881394
-2.069159 3.501327 -2.649308
-2.461884 3.444971 -2.466668
-2.649736 3.246764 -2.9117088
-2.747725 3.281832 -2.592693
-2.752754 3.342277 -2.5478249
-3.0225189 3.154012 -2.513571
-2.881332 3.262841 -2.52356
-2.683974 3.153725 -2.992406
-2.552247 3.408087 -2.591636
-3.149405 2.748312 -3.131046
-3.446391 2.08125 -3.452903
-3.264379 2.367543 -3.2122269
-3.450484 2.05727 -3.465666
-3.388074 1.969071 -3.625141
-3.633229 1.779493 -3.448729
-2.839918 2.933401 -2.87871
-2.865908 3.044249 -2.855994
-1.35649 3.284168 -2.740383
-1.438747 3.395369 -2.816437
-1.79801 3.10975 -3.098414
-1.588089 3.246444 -3.170261
-2.011893 3.405958 -2.904245
-2.216853 3.492016 -2.584554
-2.159054 3.402689 -2.468639
-2.591462 3.343148 -2.7982578
-2.555821 3.313688 -2.745164
-2.720282 3.28519 -2.603985
-2.745567 3.289604 -2.578312
-2.881332 3.262841 -2.52356
-2.489249 3.331805 -2.6833138
-2.863113 2.946166 -3.089187
-2.955716 2.693825 -3.438968
-3.328217 2.233047 -3.315052
-3.098117 2.50041 -3.241653
-3.37858 2.248195 -3.481268
-3.450011 2.071054 -3.45857
-3.449189 1.909652 -3.56443
-3.435494 1.91694 -3.578884
-3.7788801 1.678806 -3.314878
-3.7669811 1.680921 -3.3314888
-2.767835 2.965539 -3.077556
-2.612669 2.990366 -3.116103
-1.356472 3.272237 -2.754991
-1.362223 3.281174 -2.7596679
-1.840164 3.022238 -3.101614
-1.828949 3.024327 -3.1078339
-1.606506 3.240944 -3.180618
-1.789196 3.105953 -3.1150808
-1.400291 3.337576 -2.9400249
-2.110321 3.42665 -2.9358768
-2.121837 3.517811 -2.703009
-2.157029 3.403453 -2.472603
-2.325458 3.415642 -2.517636
-2.340062 3.413957 -2.50421
-2.336637 3.283501 -3.139016
-2.4332569 3.374016 -2.840558
-2.493691 3.324557 -2.6971478
-2.655356 3.067516 -3.040186
-2.833006 2.811058 -3.4588869
-2.941768 2.56208 -3.424782
-2.833417 2.805751 -3.4644918
-3.386967 2.238497 -3.416529
-3.446391 2.08125 -3.452903
-3.450484 2.05727 -3.465666
-3.259132 2.365536 -3.223219
-3.31572 2.262151 -3.600707
-3.448169 1.893994 -3.574183
-3.480333 1.774332 -3.488776
-3.503975 1.615563 -3.425278
-2.6242359 2.978526 -3.121499
-1.291365 3.166853 -2.9293659
-1.793353 3.101144 -3.113497
-1.599661 3.241404 -3.181434
-1.3273771 3.235352 -3.086771
-1.949444 3.217402 -3.163542
-2.230444 3.512147 -2.648805
-2.158937 3.402048 -2.470198
-2.334022 3.413672 -2.52106
-2.283841 3.39988 -2.937134
-2.480799 3.360547 -2.775567
-2.484102 3.330508 -2.700934
-2.8286269 2.815971 -3.457008
-2.795045 2.93942 -3.274786
-2.797513 2.503434 -3.5456588
-2.8284729 2.803619 -3.470131
-2.867392 2.657529 -3.5384529
-3.100825 2.493057 -3.2483659
-3.296508 2.42127 -3.407978
-3.246706 1.990087 -3.7549691
-3.475686 1.767164 -3.5014699
-3.463217 1.784765 -3.644916
-3.503975 1.615563 -3.425278
-3.7006571 1.661031 -3.371041
-2.6982229 2.885646 -3.2442849
-2.339822 3.140584 -3.196292
-1.290716 3.166433 -2.9466689
-1.285401 3.169629 -2.934516
-1.35649 3.284168 -2.740383
-1.816327 3.064011 -3.331321
-1.631838 3.156353 -3.308357
-1.749096 3.14639 -3.297675
-1.921946 3.075218 -3.25978
-2.02066 3.27236 -3.1721249
-2.325458 3.415642 -2.517636
-2.353009 3.403126 -2.545457
-2.345384 3.208135 -3.163986
-2.327514 3.47664 -2.6504688
-2.353009 3.403126 -2.545457
-2.8286269 2.815971 -3.457008
-2.863113 2.946166 -3.089187
-2.87852 2.886824 -3.277248
-2.702952 2.885719 -3.257465
-2.948848 2.550709 -3.429345
-2.767145 2.724459 -3.557194
-2.821909 2.80613 -3.472535
-3.30344 2.426938 -3.34252
-3.211309 2.489918 -3.4266388
-3.291751 1.803341 -3.796301
-3.15797 2.158327 -3.757818
-3.4939191 1.78521 -3.579273
-3.498241 1.612884 -3.437196
-3.625853 1.638831 -3.404724
-2.607398 2.988341 -3.131137
-2.693271 2.888372 -3.261415
-1.255458 3.089661 -3.035708
-1.824823 3.068074 -3.3345509
-1.315865 3.137065 -3.167284
-1.707219 3.045369 -3.400617
-2.090883 3.12889 -3.249029
-2.077213 3.186944 -3.1979969
-2.823225 2.824284 -3.448153
-2.818855 2.818623 -3.463084
-2.802491 2.492781 -3.551075
-2.730696 2.640954 -3.569691
-2.645292 2.966571 -3.393177
-3.036066 2.534763 -3.48973
-3.177099 2.512491 -3.327364
-3.1110861 2.492488 -3.5573308
-3.144058 1.812151 -3.850357
-3.105875 1.94806 -3.828902
-3.463605 1.646612 -3.672822
-3.535451 1.627609 -3.5866458
-2.618879 2.979561 -3.1385388
-2.341541 3.132348 -3.2102509
-1.815695 3.063909 -3.355
-1.504156 3.141559 -3.298696
-1.474413 3.140039 -3.2834148
-1.7443889 2.986532 -3.3520598
-1.616813 3.089253 -3.398562
-2.093972 3.122462 -3.265491
-1.932793 3.073905 -3.278184
-2.813178 2.827373 -3.451711
-2.792971 2.498402 -3.555209
-2.92082 2.46769 -3.656275
-2.6913779 2.967992 -3.317195
-2.577587 2.887572 -3.527685
-2.564238 2.801026 -3.5719988
-3.151109 1.682896 -3.888999
-3.102377 1.931073 -3.83523
-2.975316 2.398595 -3.703257
-3.090298 1.951957 -3.83641
-3.309245 1.651129 -3.814574
-2.553407 3.090183 -3.278451
-2.369443 3.140949 -3.319819
-1.220016 2.995008 -3.106066
-1.82856 3.059003 -3.367275
-1.55083 2.99318 -3.490121
-1.278862 3.05751 -3.214753
-1.468438 3.129596 -3.2984529
-1.6821179 2.821942 -3.4930959
-1.634306 2.942105 -3.525109
-2.742263 2.414533 -3.775784
-2.808819 2.368595 -3.802445
-2.725336 2.635612 -3.581944
-2.980884 1.645868 -3.819674
-3.052968 1.804817 -3.862592
-2.95388 2.080646 -3.892263
-2.966363 2.065834 -3.88964
-2.967129 2.075657 -3.887368
-3.568106 1.556812 -3.579452
-3.543545 1.562605 -3.652629
-3.432652 1.577803 -3.754506
-2.160349 3.142743 -3.3741999
-1.81785 3.049697 -3.3676078
-1.757703 2.976826 -3.36019
-1.922973 3.057538 -3.465246
-2.796349 2.568322 -3.721428
-2.750387 2.401607 -3.7722
-2.8751879 2.33112 -3.837225
-2.374789 2.975006 -3.5335228
-2.350641 2.99158 -3.5261629
-2.556733 2.795663 -3.585665
-2.978258 1.639086 -3.814271
-3.260682 1.506159 -3.793674
-3.079154 1.908213 -3.850976
-3.041037 1.811255 -3.871016
-2.881947 1.803833 -3.981553
-2.184479 3.071893 -3.464582
-1.170461 2.968558 -3.1719549
-1.846909 2.914229 -3.5701668
-1.2652661 3.044487 -3.302427
-1.692773 2.816802 -3.496312
-1.529802 2.665432 -3.5633628
-1.547799 2.819231 -3.596477
-2.055256 3.116717 -3.408012
-2.77979 2.493212 -3.796849
-2.616333 2.311623 -3.7995
-2.84657 2.24489 -3.884577
-2.729579 2.253646 -3.86229
-2.74915 2.678528 -3.653974
-2.343066 2.980868 -3.53967
-2.341598 2.990061 -3.530741
-2.978132 1.635003 -3.823374
-3.061094 1.584082 -3.817703
-2.9776309 1.637918 -3.815181
-2.966321 1.648109 -3.825592
-2.949672 2.079918 -3.891376
-2.9479089 2.062876 -3.898975
-1.772183 2.888417 -3.527624
-1.248928 2.793991 -3.619094
-1.977492 2.924583 -3.6348789
-2.75753 2.529456 -3.815232
-2.623539 2.29641 -3.7997391
-2.771067 2.590499 -3.753918
-2.372652 2.965133 -3.5488548
-2.169125 2.866653 -3.668661
-2.552587 2.807017 -3.648921
-3.034849 1.817245 -3.893862
-2.790058 1.933029 -3.98623
-1.011438 2.711966 -3.337403
-1.636774 2.725334 -3.687937
-1.104751 2.767049 -3.56588
-1.534207 2.656302 -3.567512
-1.519503 2.656749 -3.5623739
-1.872783 2.76551 -3.805728
-2.668073 2.478708 -3.853411
-2.670559 2.401697 -3.852062
-2.61395 2.299187 -3.804819
-2.681386 2.003647 -3.854797
-2.732499 2.68168 -3.703507
-2.49519 2.742228 -3.774237
-2.1853979 2.868667 -3.664892
-2.936807 1.661464 -3.955619
-2.6804008 1.987941 -3.860289
-2.643701 1.809384 -4.043939
-2.644895 1.818201 -4.042276
-1.045048 2.810379 -3.476784
-1.689185 2.741482 -3.741655
-1.097136 2.506588 -3.81782
-1.5234901 2.655216 -3.570415
-1.4294701 2.712513 -3.764877
-1.985169 2.733079 -3.829122
-2.3971848 2.488652 -3.8540561
-2.67241 1.995872 -3.861713
-2.545431 2.802155 -3.675411
-2.187484 2.860375 -3.673252
-2.161169 2.852045 -3.684604
-2.177428 2.846073 -3.6847801
-2.62463 1.807846 -4.04937
-0.962314 2.620037 -3.448953
-1.606819 2.520587 -3.860925
-1.008046 2.728783 -3.4805999
-1.010607 2.446531 -3.744282
-1.316041 2.557821 -3.881051
-1.566489 2.479496 -3.803557
-1.4724541 2.545131 -3.89237
-2.0009649 2.53152 -3.958215
-1.81734 2.578977 -3.934546
-2.445438 2.591299 -3.84494
-2.429868 2.545444 -3.849014
-2.394456 2.474939 -3.861112
-2.586489 2.289695 -3.991416
-2.061191 2.681741 -3.783717
-2.632279 1.799932 -4.048269
-2.634465 1.825013 -4.044528
-1.657777 2.551083 -3.892097
-1.003198 2.639392 -3.5718489
-1.080803 2.248985 -3.982558
-1.576941 2.480326 -3.804887
-2.174778 2.621034 -3.875966
-2.103256 2.461311 -3.821995
-2.400709 2.424018 -3.996279
-2.6416419 2.08026 -4.012366
-2.152336 2.735976 -3.778685
-2.605512 1.652333 -4.0757
-2.452221 1.775532 -4.10253
-2.5243819 2.093245 -4.08767
-1.573715 2.275276 -4.003215
-1.006755 2.252796 -3.904011
-1.0139561 2.224887 -3.934911
-0.969723 2.563273 -3.52613
-1.371286 2.284425 -4.035378
-1.473228 2.272408 -4.024791
-1.510561 2.240431 -3.946082
-2.089824 2.454739 -3.827903
-1.903284 2.307569 -4.056183
-1.655372 2.310302 -4.056049
-2.149999 2.594894 -3.87976
-2.099463 2.448422 -3.829149
-2.386047 2.286687 -4.078617
-2.48663 2.220013 -4.071017
-2.077382 2.67837 -3.783195
-2.149173 2.728641 -3.7838671
-2.391475 1.630214 -4.120476
-1.007406 2.215123 -3.936421
-1.028509 2.098933 -4.054768
-0.982843 2.395455 -3.718502
-1.329437 2.109875 -4.054264
-1.5219051 2.238806 -3.946186
-1.777571 2.324769 -4.0660977
-2.1936738 2.408471 -4.007723
-2.278895 2.275462 -4.101015
-2.3805609 2.141791 -4.075334
-2.240004 1.667315 -4.12946
-1.539306 2.156144 -4.047302
-1.528588 2.154932 -4.0498857
-1.932868 2.272408 -4.048649
-1.809969 2.177372 -4.089088
-1.78917 2.159142 -4.094495
-1.674322 2.144223 -4.107136
-2.003797 2.242997 -4.0806518
-2.3795 2.150422 -4.074269
-2.311125 1.791298 -4.112941
-1.544328 2.141488 -4.056432
-1.092115 1.883761 -4.108583
-1.525135 2.139781 -4.05287
-1.779916 2.148876 -4.0971217
-1.820123 2.162567 -4.0939827
-1.946785 2.262001 -4.053504
-2.219914 2.183954 -4.116446
-2.365428 2.153031 -4.07616
-2.234287 1.920192 -4.074311
-2.122653 1.743759 -4.060689
-1.385482 1.961887 -4.095675
-1.530318 2.132725 -4.0549088
-1.789025 2.139362 -4.096646
-1.773501 1.954029 -4.105314
-1.79929 2.146002 -4.096335
-1.539051 2.132749 -4.056069
-1.627265 1.94595 -4.127562
-2.36177 2.147388 -4.077116
-2.357716 2.122958 -4.074503
-1.1420361 1.712899 -3.975039
-2.072612 2.050048 -4.10083
-1.539384 1.954094 -4.1195188
-2.346906 2.131633 -4.0751457
-2.123597 2.008557 -4.080898
-2.192419 1.975337 -4.01249
-1.325942 1.778696 -3.932153
-1.43571 1.975263 -4.093466
-1.450059 1.986401 -4.090931
-1.719785 1.739231 -3.951947
-1.907936 1.929385 -4.084597
-1.614816 1.743134 -3.958524
-2.18164 1.983935 -4.013149
-2.064112 1.84837 -3.969054
-1.211923 1.634046 -3.782292
-1.449645 1.964172 -4.0839357
-1.455039 1.976137 -4.094877
-1.513383 1.760935 -3.948501
-1.951866 1.907918 -4.0160837
-2.052004 1.859295 -3.967016
-2.043785 1.678124 -3.845874
-1.3665189 1.704413 -3.746409
-1.441021 1.958067 -4.070899
-1.595897 1.660683 -3.737736
-1.894675 1.777081 -3.844441
-1.512756 1.714033 -3.757114
-1.950683 1.7624 -3.84635
-1.966992 1.753555 -3.842663
-1.33437 1.70508 -3.50662
-1.4102681 1.817995 -3.913989
-1.435891 1.871041 -3.870733
-1.745647 1.637593 -3.706224
-1.837482 1.646245 -3.672796
-1.444614 1.871994 -3.872072
-1.964918 1.61249 -3.63106
-1.371372 1.787197 -3.513932
-1.203544 1.627491 -3.4995239
-1.483517 1.682945 -3.4969358
-1.737267 1.63408 -3.4885058
-1.885285 1.679824 -3.6511421
-1.437372 1.82908 -3.75173
-1.902362 1.675808 -3.650313
-1.343826 1.814583 -3.338086
-1.283056 1.736169 -3.2984328
-1.572469 1.652386 -3.45462
-1.907792 1.681205 -3.4751549
-1.980237 1.606919 -3.46791
-1.440924 1.708632 -3.3216
-1.1794181 1.692734 -3.289312
-1.5449231 1.681315 -3.311729
-1.835697 1.65273 -3.476486
-2.01175 1.525371 -3.3895988
-1.923364 1.677129 -3.4742799
-1.4310861 1.726071 -3.222566
-1.338595 1.854698 -3.216546
-1.24882 1.826164 -3.1526859
-1.973312 1.589559 -3.283436
-2.130405 1.462133 -3.760304
-1.5501341 1.699474 -3.191216
-1.165441 1.807173 -3.1205459
-1.873982 1.712088 -3.288425
-2.013448 1.531723 -3.2806199
-1.88679 1.71104 -3.284425
-1.4031501 1.893632 -3.062038
-1.379019 1.967544 -3.037134
-1.2383521 1.91348 -3.061105
-1.733759 1.655079 -3.280364
-1.94431 1.634356 -3.1505249
-1.541389 1.772277 -3.111466
-1.114095 1.914811 -3.061039
-1.697827 1.692184 -3.169687
-1.832492 1.803477 -3.105695
-2.05068 1.523383 -3.200929
-1.845164 1.802309 -3.1020858
-1.589903 1.951639 -3.01601
-1.407637 2.052734 -2.9675279
-1.117221 2.020256 -2.990913
-1.831922 1.674414 -3.290186
-2.04659 1.619549 -3.086026
-1.692207 1.871953 -3.052337
-1.774865 2.02526 -2.968823
-1.717725 1.784316 -3.100185
-1.241142 2.01969 -3.0016658
-1.767613 1.693047 -3.180371
-1.840614 1.821644 -3.0932078
-2.101043 1.509632 -3.107513
-1.84803 1.813241 -3.095928
-1.865364 1.913873 -3.028507
-1.596085 2.164131 -2.897129
-1.244269 2.125135 -2.931541
-1.350697 2.272219 -2.8264449
-1.828755 1.811292 -3.0989258
-2.163583 1.60723 -3.032136
-1.947075 1.80899 -3.066011
-2.014753 1.958453 -2.9500809
-1.883446 2.08802 -2.889546
-1.149965 2.332234 -2.780314
-1.075958 2.173608 -2.885522
-2.108699 1.815479 -2.978644
-2.241612 1.522609 -3.032117
-1.704306 2.29558 -2.7927659
-1.402992 2.420228 -2.710582
-1.2043169 2.465445 -2.675865
-2.235575 1.81225 -2.859711
-2.304964 1.637875 -2.8999178
-1.992028 2.148757 -2.7670438
-1.76886 2.337578 -2.7037358
-1.231241 2.492179 -2.522356
-2.1355019 1.981181 -2.807482
-2.497499 1.524098 -2.9653099
-1.462674 2.437194 -2.600849
-2.314117 1.801479 -2.661785
-2.4088209 1.602425 -2.790542
-2.711024 1.483279 -3.0199609
-2.051055 2.078027 -2.539996
-2.20693 1.928326 -2.6124399
-1.810091 2.224935 -2.435237
-1.540072 2.336007 -2.331703
-1.275191 2.419793 -2.295584
-2.425093 1.600678 -2.7801929
-2.326973 1.80305 -2.649118
-2.216784 1.930609 -2.597439
-2.058901 2.077297 -2.5226269
-1.815725 2.222208 -2.417091
-1.541509 2.32672 -2.314674
-2.570185 1.608965 -2.730471
-1.638572 2.294573 -2.350193
-1.277484 2.41027 -2.278424
-2.430607 1.824525 -2.612782
-2.283204 1.978978 -2.537307
-2.587349 1.606549 -2.733242
-2.092318 2.09054 -2.472826
-1.847764 2.214046 -2.391996
-1.848557 2.209484 -2.375112
-1.291375 2.213308 -2.045166
-2.576845 1.611502 -2.7146869
-2.903146 1.477526 -2.999589
-1.5074921 2.154245 -2.080531
-2.4364989 1.821458 -2.600905
-2.287484 1.975983 -2.525492
-2.58913 1.605971 -2.7248728
-2.824377 1.513723 -2.66744
-2.095819 2.085467 -2.458091
-1.778372 2.025901 -2.151735
-1.320747 2.083527 -1.8548009
-2.392355 1.684055 -2.4575949
-2.6445749 1.513902 -2.596715
-3.132989 1.492299 -2.858262
-1.470753 2.014302 -1.868086
-1.460163 2.012424 -1.858129
-2.228352 1.771646 -2.369533
-2.039071 1.87394 -2.264102
-2.541524 1.633217 -2.578158
-3.093493 1.529701 -2.646861
-2.903146 1.477526 -2.999589
-3.109885 1.412135 -2.736021
-2.011359 1.882496 -2.246891
-1.737394 1.963641 -2.07353
-1.470474 2.009115 -1.846789
-2.386338 1.67465 -2.439185
-2.533352 1.630163 -2.5511339
-3.334425 1.515244 -2.6227329
-2.87199 1.333504 -2.8569279
-2.038556 1.859782 -2.250213
-1.743404 1.950444 -2.060364
-2.227056 1.757727 -2.355816
-2.38619 1.668054 -2.444184
-2.4901729 1.571807 -2.432173
-3.328843 1.51783 -2.60798
-3.1054251 1.415235 -2.7207
-3.0825279 1.398413 -2.741282
-1.474336 2.012496 -1.815072
-2.386472 1.670905 -2.445885
-2.38619 1.668054 -2.444184
-2.386338 1.67465 -2.439185
-2.221757 1.741248 -2.314765
-2.482219 1.432139 -2.447551
-3.093493 1.529701 -2.646861
-3.09072 1.405812 -2.726254
-1.72188 1.940086 -2.000211
-2.016878 1.830267 -2.212014
-2.340439 1.659329 -2.363241
-2.279644 1.587465 -2.350799
-2.3531039 1.668126 -2.37639
-2.314621 1.584185 -2.365071
-2.493401 1.418458 -2.459953
-2.98794 1.334589 -2.761232
-1.718096 1.930703 -1.978661
-2.329496 1.667344 -2.351743
-2.129973 1.602053 -2.293341
-2.337702 1.664165 -2.36155
-2.221468 1.72669 -2.30164
-2.620988 1.417704 -2.576288
-2.994029 1.334545 -2.772951
-2.019825 1.814819 -2.199845
-1.73535 1.922667 -1.9943709
-1.489695 2.002722 -1.806003
-2.340439 1.659329 -2.363241
-2.329496 1.667344 -2.351743
-2.1276999 1.608911 -2.273487
-2.968105 1.308953 -2.767262
-1.898202 1.715911 -2.0247
-1.637406 1.886405 -1.831432
-1.484043 2.015586 -1.798366
-2.005261 1.551831 -2.102971
-2.214199 1.67032 -2.266598
-2.039227 1.706351 -2.134092
-2.7578309 1.249204 -2.804643
-1.779158 1.731839 -1.827943
-1.346243 2.057205 -1.725646
-2.004581 1.56428 -2.093178
-2.754449 1.265499 -2.816175
-1.916507 1.656376 -1.949219
-2.004217 1.547599 -2.097001
-1.950598 1.492366 -1.938267
-1.950004 1.476662 -1.943329
-1.948765 1.482518 -1.92759
-1.973248 1.352486 -1.846782
-1.972101 1.34952 -1.863131
-2.30533 1.282867 -2.449722
-2.284952 1.280837 -2.45264
-2.295256 1.256572 -2.467646
-2.129973 1.602053 -2.293341
-2.129973 1.602053 -2.293341
-2.137157 1.59864 -2.292898
-2.284952 1.280837 -2.45264
-1.7872 -0.379803 -1.753803
-1.881663 -0.387983 -1.60283
-1.811283 -0.163167 -1.585079
-1.748832 -0.151691 -1.753802
-1.916628 -0.521763 -1.626367
-1.885835 -0.43895 -1.455292
-1.811275 -0.163167 -1.922529
-1.769235 -0.009822011 -1.606933
-1.916678 -0.531307 -1.473173
-1.883923 -0.67203 -1.753806
-1.856953 -0.12402 -1.405777
-1.881656 -0.387983 -1.90478
-1.715081 -0.04985201 -1.753802
-1.762959 0.148625 -1.609145
-1.92415 -0.551522 -1.476158
-1.926407 -0.540337 -1.619742
-1.849344 -0.57133 -1.406795
-1.810995 -0.12828 -1.3065339
-1.83457 0.148503 -1.418765
-1.856934 -0.12402 -2.101832
-1.769227 -0.009822011 -1.900672
-1.810576 0.176731 -1.471971
-1.734048 0.1424 -1.620716
-1.698939 0.133 -1.7538
-1.852347 -0.591121 -1.413361
-1.916622 -0.521763 -1.881245
-1.896975 -0.6920201 -1.753806
-1.800174 -0.532959 -1.339816
-1.655788 0.212144 -1.33792
-1.826134 -0.412897 -1.311641
-1.762952 0.148625 -1.898459
-1.885819 -0.43895 -2.052318
-1.734041 0.1424 -1.886887
-1.731804 0.418771 -1.753802
-1.859833 -0.742172 -1.401524
-1.9982239 -0.6493751 -1.588511
-1.743952 -0.603828 -1.3953329
-1.725067 -0.590548 -1.383891
-1.7907 -0.480356 -1.29205
-1.673985 0.120572 -1.23609
-1.8161939 -0.401169 -1.298955
-1.801912 -0.132651 -1.294138
-1.780493 0.417552 -1.432619
-1.810562 0.176731 -2.035637
-1.826111 -0.412897 -2.195968
-1.7590669 0.424815 -1.485609
-1.731804 0.418771 -1.753802
-1.6614 0.405114 -1.692598
-1.632654 0.40524 -1.753799
-1.916662 -0.531307 -2.03444
-1.9264 -0.540337 -1.887871
-1.970418 -0.7494279 -1.753807
-1.662322 -0.538785 -1.278892
-1.688634 -0.503367 -1.237402
-1.672651 0.102126 -1.227678
-1.44455 0.282869 -1.2365
-1.782765 -0.464814 -1.280473
-1.56024 -0.441062 -1.162099
-1.6864719 -0.486523 -1.228915
-1.473899 -0.370429 -1.1168079
-1.41233 -0.218708 -1.085568
-1.39406 -0.07086998 -1.077368
-1.444591 0.05562401 -1.10562
-1.53754 0.156096 -1.156217
-1.573979 0.4463 -1.330774
-1.661397 0.405114 -1.815001
-1.759053 0.424815 -2.021995
-1.834551 0.148503 -2.088842
-1.800152 -0.532959 -2.16779
-1.810972 -0.12828 -2.201072
-1.743806 0.49451 -1.753802
-1.576302 0.604553 -1.674677
-1.728093 -0.613332 -1.386506
-1.866451 -0.7549649 -1.40794
-2.046283 -0.9507819 -1.606371
-1.572033 -0.54746 -1.385397
-1.530773 0.177779 -1.160344
-1.554834 -0.45518 -1.166579
-1.463317 -0.380313 -1.118573
-1.398056 -0.219495 -1.08546
-1.378691 -0.06279498 -1.0767679
-1.432251 0.071282 -1.1067159
-1.86061 0.61892 -1.348604
-1.655766 0.212144 -2.169679
-1.790676 -0.480356 -2.215556
-1.673957 0.120572 -2.271511
-1.81617 -0.401169 -2.208652
-1.801889 -0.132651 -2.213468
-1.784686 0.594545 -1.753803
-1.652928 0.631377 -1.753799
-1.583434 0.591253 -1.753797
-1.855626 -0.766004 -1.39441
-1.849325 -0.57133 -2.100814
-1.924135 -0.551522 -2.031455
-1.9982162 -0.6493751 -1.919106
-2.0142891 -0.934937 -1.753809
-1.7103 -0.601436 -1.389059
-1.579645 -0.55942 -1.391438
-1.502211 -0.526924 -1.302537
-1.433718 0.461352 -1.280417
-1.334534 -0.376807 -1.2222509
-1.323222 -0.168891 -1.1134809
-1.316391 0.0001420081 -1.1310179
-1.61243 0.472527 -1.267038
-1.803389 0.608333 -1.696906
-1.780476 0.417552 -2.074987
-1.573957 0.4463 -2.176821
-1.78274 -0.464814 -2.227134
-1.662297 -0.538785 -2.228709
-1.672623 0.102126 -2.279922
-1.560208 -0.441062 -2.345495
-1.686443 -0.486523 -2.278686
-1.473866 -0.370429 -2.390781
-1.412294 -0.218708 -2.422018
-1.394025 -0.07086998 -2.430217
-1.4445571 0.05562401 -2.401967
-1.537508 0.156096 -2.351376
-1.860589 0.61892 -2.1590059
-1.507332 1.037649 -1.753796
-1.576297 0.604553 -1.832918
-1.730288 -0.922433 -1.253507
-1.96308 -1.009334 -1.509136
-1.725047 -0.590548 -2.1237109
-2.0540948 -1.183487 -1.646129
-1.692383 -0.683231 -1.3573279
-1.527043 -0.480458 -1.218467
-1.569124 -0.547083 -1.39073
-1.437643 -0.513886 -1.335104
-1.311695 0.415007 -1.249977
-1.342393 0.154692 -1.163235
-1.259839 -0.205598 -1.172219
-1.341467 -0.083231 -1.088794
-1.615322 0.536502 -1.288659
-1.88766 0.693262 -1.664452
-1.31167 0.415007 -2.257604
-1.530742 0.177779 -2.347248
-1.688607 -0.503367 -2.2702
-1.502187 -0.526924 -2.205054
-1.432217 0.071282 -2.400872
-1.378655 -0.06279498 -2.430817
-1.398022 -0.219495 -2.4221249
-1.463282 -0.380313 -2.389016
-1.554803 -0.45518 -2.341014
-1.803384 0.608333 -1.810702
-1.433116 0.989949 -1.648608
-1.433112 0.989949 -1.858978
-1.431708 0.964847 -1.753793
-1.856257 -1.067573 -1.408196
-1.949846 -1.017452 -1.495358
-1.85233 -0.591121 -2.094248
-1.572014 -0.54746 -2.122197
-2.0462751 -0.9507819 -1.901248
-2.0334651 -1.176668 -1.753809
-1.680822 -0.671532 -1.3607119
-1.479301 -0.572624 -1.444745
-1.4771041 -0.498076 -1.282035
-1.473685 -0.559228 -1.44033
-1.40703 0.500654 -1.238902
-1.254521 -0.408761 -1.307278
-1.296646 -0.161458 -1.0851899
-1.317836 -0.083738 -1.0710269
-1.261986 0.030065 -1.165694
-1.283579 -0.009211004 -1.08857
-1.70996 0.707935 -1.204586
-1.472648 0.57243 -1.248868
-1.836781 0.647056 -1.412576
-1.444523 0.282869 -2.271088
-1.433692 0.461352 -2.227171
-1.477078 -0.498076 -2.225554
-1.527016 -0.480458 -2.289125
-1.342361 0.154692 -2.344347
-1.341432 -0.083231 -2.418789
-1.2598081 -0.205598 -2.33536
-1.83949 0.825255 -1.862027
-1.836762 0.647056 -2.095033
-1.812728 0.7994 -1.753803
-1.434562 1.019161 -1.843894
-1.434567 1.019161 -1.663694
-1.70509 -0.865705 -1.3600839
-1.786471 -1.038317 -1.466681
-1.775153 -1.026429 -1.4560289
-2.004095 -1.188421 -1.530476
-1.95316 -1.036329 -1.499241
-1.743933 -0.603828 -2.112271
-1.71028 -0.601436 -2.118541
-1.866432 -0.7549649 -2.09967
-1.963067 -1.009334 -1.99848
-2.081103 -1.393104 -1.75381
-1.570563 -0.64634 -1.353103
-1.505567 -0.645216 -1.400503
-1.385642 -0.445238 -1.262738
-1.380193 -0.590337 -1.441632
-1.236053 0.247521 -1.1763949
-1.40703 0.500654 -1.238902
-1.504828 0.481041 -1.2269009
-1.348911 -0.482103 -1.326358
-1.139891 -0.253097 -1.278843
-1.230873 -0.195072 -1.123597
-1.232427 0.018186 -1.117008
-1.197077 0.01532799 -1.185102
-1.513508 0.747917 -1.144518
-1.808583 0.792134 -1.414224
-1.545036 0.591409 -1.279828
-1.886232 0.694056 -1.570039
-1.612404 0.472527 -2.240558
-1.236021 0.247521 -2.331183
-1.407003 0.500654 -2.2686849
-1.437621 -0.513886 -2.172484
-1.569104 -0.547083 -2.116863
-1.261956 0.030065 -2.341885
-1.316358 0.0001420081 -2.376564
-1.323187 -0.168891 -2.3941
-1.334507 -0.376807 -2.28533
-1.887656 0.693262 -1.84316
-1.808564 0.792134 -2.093384
-1.886223 0.694056 -1.937572
-1.839495 0.825255 -1.645581
-1.434567 1.019161 -1.663694
-1.434562 1.019161 -1.843894
-1.668235 1.195484 -1.7538
-1.92177 -1.189242 -1.4752539
-1.815372 -1.075323 -1.474687
-1.916958 -1.187271 -1.47935
-1.769857 -1.038531 -1.477226
-1.927966 -1.186816 -1.481058
-2.110751 -1.388388 -1.63319
-1.728074 -0.613332 -2.121096
-1.859815 -0.742172 -2.106085
-1.579625 -0.55942 -2.116156
-2.004082 -1.188421 -1.977141
-2.054089 -1.183487 -1.861491
-2.110745 -1.388388 -1.874433
-1.693321 -0.86282 -1.372847
-1.576036 -0.859706 -1.401464
-1.493457 -0.630938 -1.414228
-1.476567 -0.574292 -1.449572
-1.378097 -0.606934 -1.450786
-1.373601 -0.590061 -1.443394
-1.122646 0.401717 -1.2527239
-1.282495 0.644996 -1.17904
-1.15171 -0.422448 -1.413928
-1.0451 -0.244735 -1.406268
-1.18534 -0.179023 -1.200134
-1.261312 -0.08441001 -1.049868
-1.24741 -0.135179 -1.0591539
-1.204376 -0.157173 -1.084283
-1.239524 -0.03701201 -1.061025
-1.18069 0.005176991 -1.14686
-1.205391 -0.01764101 -1.079971
-1.580812 0.79894 -1.123219
-1.730515 0.805044 -1.257697
-1.848657 0.827136 -1.571729
-1.615298 0.536502 -2.218939
-1.504799 0.481041 -2.280689
-1.163172 0.238374 -2.309443
-1.282465 0.644996 -2.328539
-1.348889 -0.482103 -2.1812239
-1.3801761 -0.590337 -2.0659509
-1.317801 -0.083738 -2.436555
-1.296612 -0.161458 -2.422391
-1.23084 -0.195072 -2.383979
-1.139865 -0.253097 -2.228729
-1.3856161 -0.445238 -2.2448459
-1.848647 0.827136 -1.93588
-1.768226 0.900245 -1.753803
-1.730489 0.805044 -2.2499049
-1.804644 0.937283 -1.657407
-1.243602 1.026697 -1.753789
-1.247877 1.070644 -1.850982
-1.668235 1.195484 -1.7538
-1.284247 1.202686 -1.625263
-1.88739 -1.183853 -1.494398
-1.925041 -1.206028 -1.474102
-1.988392 -1.179763 -1.514796
-2.0730548 -1.411435 -1.527586
-1.855607 -0.766004 -2.113199
-1.680802 -0.671532 -2.146888
-1.570542 -0.64634 -2.154491
-1.949833 -1.017452 -2.012257
-1.988379 -1.179763 -1.99282
-2.136657 -1.587816 -1.753812
-2.168822 -1.603652 -1.630498
-1.566268 -0.834322 -1.397992
-1.490825 -0.652724 -1.403394
-1.4748241 -0.616629 -1.449243
-1.366603 -0.590294 -1.449494
-1.163202 0.238374 -1.1981289
-1.115263 0.391583 -1.249707
-1.054935 -0.08305299 -1.260435
-1.146547 -0.102308 -1.216415
-1.168846 -0.170769 -1.15832
-1.192734 -0.119567 -1.07084
-1.213606 -0.1089 -1.058653
-1.163792 -0.141273 -1.107003
-1.210198 -0.06220001 -1.0593469
-1.220975 -0.08564299 -1.0538269
-1.17154 -0.026153 -1.099502
-1.141996 -0.047216 -1.170328
-1.487743 0.691344 -1.228539
-1.480887 0.71528 -1.209767
-1.42979 0.813 -1.041122
-1.78957 0.958229 -1.510351
-1.70993 0.707935 -2.303016
-1.545012 0.591409 -2.227765
-1.115236 0.391583 -2.257864
-1.1226209 0.401717 -2.254848
-1.109648 0.41084 -2.256993
-1.472622 0.57243 -2.2587209
-1.373585 -0.590061 -2.06419
-1.473668 -0.559228 -2.067261
-1.197047 0.01532799 -2.322473
-1.283543 -0.009211004 -2.41901
-1.1688141 -0.170769 -2.349253
-1.18531 -0.179023 -2.307439
-1.254498 -0.408761 -2.200299
-1.804638 0.937283 -1.850199
-1.711118 0.971725 -2.174478
-1.247883 1.070644 -1.656596
-1.28424 1.202686 -1.882316
-1.424246 1.537244 -1.678569
-1.882385 -1.201501 -1.495886
-2.123684 -1.637448 -1.544849
-1.99761 -1.195113 -1.513103
-1.730262 -0.922433 -2.254095
-1.692362 -0.683231 -2.150273
-1.493438 -0.630938 -2.093362
-1.953148 -1.036329 -2.008374
-1.997599 -1.195113 -1.994513
-2.073043 -1.411435 -1.980035
-2.168817 -1.603652 -1.877126
-1.557006 -0.8619059 -1.39893
-1.470826 -0.634725 -1.4433
-1.390196 -0.6482509 -1.450255
-1.316048 -0.597401 -1.513522
-1.147128 -0.04290301 -1.19842
-1.032183 0.699418 -1.183284
-1.109675 0.41084 -1.250578
-1.122732 -0.437496 -1.477201
-0.969578 -0.063106 -1.388229
-1.173051 -0.111855 -1.0818579
-1.162381 -0.089802 -1.087355
-1.164531 -0.072649 -1.085668
-1.17681 -0.05602401 -1.0782219
-1.193228 -0.05189601 -1.068749
-1.141786 -0.09579998 -1.118335
-1.135214 -0.101273 -1.175642
-1.146224 -0.060433 -1.114857
-1.412367 0.758331 -1.169528
-1.401704 0.746963 -1.179409
-1.4394261 0.899632 -0.96839
-1.648526 0.944606 -1.1549029
-1.71114 0.971725 -1.333124
-1.580779 0.79894 -2.384376
-1.487714 0.691344 -2.2790499
-0.969274 0.276937 -2.200965
-1.102124 0.392173 -2.250876
-1.032153 0.699418 -2.324282
-1.378081 -0.606934 -2.056797
-1.479286 -0.572624 -2.062845
-1.476551 -0.574292 -2.058017
-1.019996 0.114407 -2.266064
-1.232392 0.018186 -2.39057
-1.247373 -0.135179 -2.4484239
-1.239487 -0.03701201 -2.446553
-1.261274 -0.08441001 -2.457711
-1.20434 -0.157173 -2.423292
-1.163757 -0.141273 -2.4005709
-1.054908 -0.08305299 -2.247133
-1.151691 -0.422448 -2.093644
-1.789557 0.958229 -1.997255
-1.686265 0.96435 -1.7538
-1.715284 0.978991 -1.753802
-1.743485 0.955389 -2.2699609
-0.931652 0.978017 -1.75378
-0.910043 1.060822 -1.671977
-1.239609 1.228165 -1.753789
-1.424242 1.537244 -1.829019
-1.599777 1.314574 -1.684808
-1.868598 -1.187516 -1.503928
-1.909032 -1.325938 -1.394866
-1.65139 -1.031462 -1.5137529
-2.067855 -1.420799 -1.510893
-2.065216 -1.413966 -1.508688
-1.566249 -0.834322 -2.109603
-1.693301 -0.86282 -2.134753
-1.505549 -0.645216 -2.107088
-1.927951 -1.186816 -2.026555
-1.85624 -1.067573 -2.099415
-1.921756 -1.189242 -2.032359
-2.065203 -1.413966 -1.998933
-1.8535709 -1.621769 -1.753805
-1.819386 -1.689163 -1.862188
-2.124109 -1.639068 -1.544936
-2.160795 -1.625699 -1.60931
-1.423027 -0.7383879 -1.364915
-1.3956801 -0.665094 -1.442822
-1.313356 -0.648059 -1.567794
-1.330234 -0.612735 -1.515073
-1.020024 0.114407 -1.241501
-1.268465 0.804207 -1.130392
-1.102151 0.392173 -1.256693
-1.006135 -0.251244 -1.575388
-1.273735 0.816638 -1.117808
-1.243777 0.854151 -0.991677
-1.553959 1.00847 -1.0408909
-1.743512 0.955389 -1.2376419
-1.596187 1.071663 -1.566836
-1.5134751 0.747917 -2.3630729
-1.268432 0.804207 -2.3771849
-1.480858 0.71528 -2.297822
-0.983601 0.40609 -2.151229
-1.032342 0.858773 -2.342788
-0.885628 0.701019 -2.196125
-1.366586 -0.590294 -2.058089
-1.1471 -0.04290301 -2.309151
-1.180659 0.005176991 -2.360715
-1.210162 -0.06220001 -2.44823
-1.220937 -0.08564299 -2.453749
-1.192698 -0.119567 -2.436735
-1.213568 -0.1089 -2.448924
-1.173017 -0.111855 -2.425715
-1.141753 -0.09579998 -2.389237
-1.135182 -0.101273 -2.33193
-0.96956 -0.063106 -2.119334
-1.1465191 -0.102308 -2.291157
-1.045083 -0.244735 -2.101298
-1.596177 1.071663 -1.94076
-1.804644 0.937283 -1.657407
-1.880851 1.046501 -2.271278
-1.638759 1.056899 -2.067451
-0.910039 1.060822 -1.835582
-1.007436 1.220866 -1.753783
-1.599774 1.314574 -1.822788
-1.608711 1.316862 -1.5687131
-1.745539 1.08792 -1.753802
-1.203136 1.615782 -1.753787
-1.750413 -1.255485 -1.538442
-1.958503 -1.298483 -1.383579
-2.115385 -1.639552 -1.526079
-2.005096 -1.420027 -1.381851
-1.705069 -0.865705 -2.147518
-1.490806 -0.652724 -2.104196
-1.474809 -0.616629 -2.058346
-1.815356 -1.075323 -2.03292
-1.916943 -1.187271 -2.028262
-1.786457 -1.038317 -2.040925
-1.925025 -1.206028 -2.0335119
-1.958483 -1.298483 -2.124035
-2.067842 -1.420799 -1.996728
-2.123673 -1.637448 -1.962774
-2.027262 -1.568346 -1.753809
-2.136657 -1.587816 -1.753812
